  -1.7869263e+00   2.7258714e+00  -5.6501512e-01
   3.4546321e+01   2.8052987e+00  -5.7018712e-01
   7.0864284e+01   2.1108497e+00  -1.5627112e-01
   1.0717011e+02  -3.7686600e-02  -2.0154712e-01
   1.4359878e+02   2.9689065e-01  -2.4958312e-01
   1.8256570e+02  -6.1676685e-01  -2.3620312e-01
   2.2029429e+02  -9.7356735e-01  -2.9377912e-01
   2.5812348e+02  -1.2494128e+00  -8.3503111e-02
   2.9516584e+02  -4.5258223e+00  -1.3251112e-01
  -8.0716584e-01   3.4152823e+01  -5.0671912e-01
   3.6905384e+01   3.3203334e+01  -2.4994312e-01
   7.2513829e+01   3.2063412e+01   1.2568088e-01
   1.1061938e+02   3.1652684e+01   7.6300889e-02
   1.4576885e+02   3.1981544e+01  -3.5471111e-03
   1.8540582e+02   2.9464725e+01   3.5932889e-02
   2.2175602e+02   3.1146825e+01  -1.9231111e-02
   2.6011729e+02   2.9352648e+01   3.7889288e-01
   2.9489285e+02   2.8728633e+01   3.0110888e-01
  -1.0302053e-01   6.5452562e+01  -3.1693912e-01
   3.4792967e+01   6.5602234e+01  -1.1074311e-01
   7.2799131e+01   6.5547692e+01  -6.9991111e-02
   1.0821777e+02   6.3414181e+01   5.0980889e-02
   1.4617102e+02   6.2715936e+01   9.3028889e-02
   1.8566740e+02   6.2769029e+01   1.9171688e-01
   2.2114343e+02   6.1869452e+01   6.9676889e-02
   2.5761240e+02   6.0969734e+01   2.1388088e-01
   2.9678342e+02   6.0446408e+01   4.0368488e-01
  -2.8477444e-01   9.7884300e+01  -3.4179112e-01
   3.7253255e+01   9.7542998e+01   2.0208488e-01
   7.3690460e+01   9.6214564e+01   2.4013688e-01
   1.1058626e+02   9.5990583e+01   1.8152888e-01
   1.4729261e+02   9.4614931e+01   2.9729288e-01
   1.8399201e+02   9.4204265e+01   2.0318888e-01
   2.2230579e+02   9.2050925e+01   4.1428088e-01
   2.5935999e+02   9.2695400e+01   5.9605688e-01
   2.9622264e+02   9.1321968e+01   2.9734088e-01
   1.0508704e+00   1.2896381e+02  -1.4892712e-01
   3.8155368e+01   1.2731245e+02  -1.0231111e-02
   7.3743173e+01   1.2764240e+02  -4.5295111e-02
   1.1144163e+02   1.2723630e+02   2.6647688e-01
   1.4697252e+02   1.2676180e+02   1.7795288e-01
   1.8599556e+02   1.2550013e+02   2.9095688e-01
   2.2246826e+02   1.2440776e+02   3.5569688e-01
   2.6038887e+02   1.2334035e+02   4.6278488e-01
   2.9843001e+02   1.2259988e+02   4.6374488e-01
   2.1687453e+00   1.5889789e+02  -4.6188712e-01
   3.8659872e+01   1.5944141e+02  -8.8891111e-02
   7.6230199e+01   1.5861676e+02   1.4231288e-01
   1.1041410e+02   1.5841124e+02  -1.9991111e-03
   1.4780078e+02   1.5678906e+02   1.5263288e-01
   1.8658334e+02   1.5624188e+02  -1.4919112e-01
   2.2400434e+02   1.5589240e+02   2.8890488e-01
   2.5991103e+02   1.5561158e+02   4.2986888e-01
   2.9902583e+02   1.5530447e+02   1.4453288e-01
   2.6664070e+00   1.9149506e+02  -2.9555512e-01
   3.7772541e+01   1.9060698e+02  -1.5946312e-01
   7.7420366e+01   1.9113271e+02   1.2874088e-01
   1.1298831e+02   1.8893815e+02  -1.2111112e-01
   1.4981549e+02   1.8789364e+02  -9.9883111e-02
   1.8669658e+02   1.8727861e+02   9.1456889e-02
   2.2334815e+02   1.8789769e+02   1.9974488e-01
   2.6128552e+02   1.8742812e+02   3.8516888e-01
   2.9977915e+02   1.8557061e+02   1.2556088e-01
   2.0339220e+00   2.2373901e+02  -1.8013912e-01
   3.9436068e+01   2.2260959e+02  -2.9485912e-01
   7.6485063e+01   2.2109551e+02  -1.5993112e-01
   1.1431345e+02   2.2108929e+02  -2.1816712e-01
   1.5162527e+02   2.2109403e+02  -1.9915912e-01
   1.8710709e+02   2.2070430e+02  -4.0195111e-02
   2.2351760e+02   2.2025928e+02   4.3024889e-02
   2.6118026e+02   2.1924177e+02   1.2499688e-01
   3.0019236e+02   2.1792474e+02   1.9770488e-01
   1.8115779e+00   2.5335438e+02  -5.6319112e-01
   4.0985876e+01   2.5489621e+02  -3.6402712e-01
   7.7574136e+01   2.5352663e+02  -1.8461512e-01
   1.1500994e+02   2.5249035e+02  -2.7675112e-01
   1.5226320e+02   2.5229195e+02  -2.7981112e-01
   1.8788983e+02   2.5178500e+02  -3.5217112e-01
   2.2644704e+02   2.5066209e+02   3.6892889e-02
   2.6347793e+02   2.4958882e+02  -1.1665911e-01
   3.0096544e+02   2.4884446e+02   3.7660889e-02
